ply
format ascii 1.0
element vertex 1391
property float x
property float y
property float z
end_header
86.204147 -429.879578 1146.546875
87.681709 -430.565796 1146.459595
86.070740 -431.664856 1145.770508
88.898048 -431.079376 1146.441895
81.656937 -431.755463 1145.366333
82.590248 -430.911804 1145.748047
15.761998 -437.191010 1143.013428
12.629055 -437.362091 1140.727905
136.550797 -432.079315 1159.478760
135.125854 -432.107147 1158.652954
132.805817 -431.882294 1157.865967
136.641510 -432.729645 1158.467529
131.589249 -432.192749 1156.960083
134.624512 -432.763824 1157.415039
132.848602 -432.646454 1156.904419
132.118073 -433.170197 1155.925415
125.867928 -429.707336 1157.576660
127.035751 -430.513092 1157.222900
129.499130 -430.989349 1157.625977
131.232208 -431.311462 1157.946899
125.817841 -431.718140 1155.489990
127.595955 -431.307770 1156.541138
130.439941 -432.174652 1156.624512
129.279541 -431.869690 1156.573364
128.178772 -432.119843 1155.914307
127.040520 -432.619934 1155.046143
128.633926 -433.040710 1155.074219
130.309647 -432.981689 1155.597534
130.441498 -433.911499 1154.582397
126.932953 -433.433563 1154.203003
125.770012 -433.318878 1153.957397
129.040604 -433.734802 1154.399170
121.661583 -429.652954 1155.754883
123.127914 -429.590607 1156.492554
125.380379 -430.411255 1156.708862
123.480103 -430.547302 1155.723633
120.640602 -430.364807 1154.720947
122.185287 -430.740204 1155.031006
123.698746 -431.889343 1154.574707
120.996719 -431.605652 1153.827393
125.309387 -432.317444 1154.684204
122.567436 -432.026855 1154.082642
123.532028 -432.691772 1153.780151
121.463242 -432.853607 1153.005005
118.110931 -429.294556 1154.444214
119.178520 -430.186096 1154.186401
117.310760 -430.303680 1153.324097
119.180756 -431.472229 1153.215698
116.188347 -430.821350 1152.562988
117.522186 -431.687683 1152.468872
114.941498 -431.185425 1151.889893
113.577629 -431.089874 1151.548462
95.002411 -432.484741 1147.114868
91.006317 -432.153381 1146.474243
89.881622 -432.682709 1146.036499
92.464600 -432.466553 1146.586792
93.575874 -432.162109 1146.992310
91.330147 -433.516937 1146.054810
92.805153 -434.204254 1146.089233
84.391258 -431.973816 1145.487305
87.084808 -432.672760 1145.586792
88.623039 -432.686768 1145.829224
85.291801 -433.373749 1145.107300
88.152641 -434.028107 1145.333740
86.344475 -434.509094 1144.963013
85.222107 -434.900391 1144.723999
88.220589 -435.146973 1145.094971
79.695816 -431.942108 1145.279785
83.139099 -431.906128 1145.384888
80.469330 -433.306824 1144.751099
78.251877 -433.622223 1144.616577
81.973877 -432.907135 1144.955322
83.500542 -433.028137 1145.029419
81.506187 -434.453369 1144.441528
82.900436 -434.114319 1144.627563
80.255875 -435.227997 1144.097290
78.122719 -435.233948 1144.178101
84.207527 -433.959625 1144.850830
81.913475 -436.459351 1144.040161
83.503052 -435.623108 1144.373291
80.008430 -437.390228 1143.750610
81.554237 -438.058044 1143.783447
84.563812 -435.884003 1144.475220
84.643982 -437.394806 1144.282837
82.978165 -438.244934 1143.936035
76.307220 -433.061157 1144.920532
74.877380 -434.680084 1144.464233
73.665588 -434.556366 1144.742188
76.665886 -434.549622 1144.368896
75.683411 -436.364258 1143.921387
77.061401 -436.462158 1143.844604
74.605858 -437.982147 1143.648560
78.656311 -437.491943 1143.703857
76.204231 -437.659668 1143.610107
77.337517 -437.958771 1143.543213
70.190689 -437.114471 1144.607178
71.393608 -437.284912 1144.335571
69.202827 -437.876251 1144.655884
73.168808 -436.344513 1144.231201
73.053040 -438.409912 1143.749268
70.062019 -439.397919 1144.053833
71.770950 -439.230652 1143.788452
67.786278 -438.240417 1144.921021
18.898823 -440.322876 1143.628540
20.277103 -443.034241 1143.486084
16.955791 -439.878204 1142.996826
19.061626 -441.743195 1143.433350
17.875067 -440.920135 1143.248779
17.857239 -442.553101 1142.694580
14.976660 -437.911774 1141.894897
15.816471 -438.574677 1142.595093
13.993043 -437.919159 1141.051514
14.569227 -438.940491 1141.338623
15.830868 -440.045380 1142.129150
16.489342 -441.215271 1142.291992
13.524481 -438.739136 1140.671509
14.925162 -440.629852 1141.129272
14.122960 -439.655151 1140.832886
12.420237 -440.048309 1140.466064
13.603348 -440.440186 1140.394653
15.422473 -442.255249 1141.099731
17.204124 -443.600098 1142.010254
13.594139 -441.648163 1140.087402
14.672868 -443.023285 1140.231201
12.736933 -441.852142 1140.021729
16.099424 -444.130615 1141.064209
8.298150 -438.879425 1142.156372
11.403564 -438.880035 1140.844238
10.326084 -439.163361 1141.350586
9.171587 -440.637421 1141.328979
6.955943 -440.863647 1141.790894
9.199028 -439.424011 1141.573975
9.174344 -441.963043 1141.023804
11.038182 -440.702179 1140.967896
6.919008 -443.334991 1140.927856
11.267416 -441.977386 1140.609375
10.661862 -443.005249 1140.568359
12.031819 -442.618256 1139.997681
8.886920 -443.292206 1140.581665
6.651085 -442.179230 1141.389404
5.240285 -443.079987 1141.360596
7.587381 -441.474670 1141.418335
144.064514 -435.100800 1162.020386
146.150726 -436.781555 1162.462646
144.583237 -435.841675 1161.460571
143.801819 -435.688995 1160.279053
142.356918 -434.625946 1160.178101
145.377853 -436.594025 1161.111206
147.956604 -438.388397 1162.974609
143.303116 -436.005981 1158.669434
146.827942 -437.837891 1161.289307
144.903320 -436.787659 1159.703125
145.843491 -437.587463 1159.587402
147.992218 -439.450989 1160.168091
144.682648 -437.079041 1158.573364
143.588638 -436.992645 1156.903442
145.481339 -437.840851 1158.216919
146.901520 -438.882172 1158.713867
140.913071 -433.370422 1160.980957
138.255920 -432.992859 1159.131592
141.117233 -434.070984 1159.839355
140.039581 -433.730316 1159.369507
138.690582 -433.605774 1158.362915
136.854355 -433.449554 1157.450073
141.598709 -434.891510 1158.626831
140.240387 -434.412109 1158.228149
139.179276 -434.313904 1157.473633
136.935822 -434.073730 1156.503174
140.267914 -435.239929 1156.658081
141.536957 -435.370880 1157.563599
138.454453 -434.886932 1155.979248
134.983337 -433.770935 1156.081787
133.608231 -434.045013 1155.271851
136.453156 -434.542755 1155.526855
131.529663 -434.531403 1154.131470
131.687164 -433.798676 1155.010742
80.586205 -440.041565 1143.503052
76.065392 -439.310577 1143.340088
78.131737 -438.857849 1143.461060
74.695168 -440.047180 1143.278687
79.081406 -439.512024 1143.465576
77.797844 -440.892639 1143.221680
76.016602 -441.691925 1143.086182
68.379601 -439.415100 1144.459473
70.664444 -441.041779 1143.623413
73.441437 -439.877625 1143.448975
72.073784 -440.691406 1143.410889
68.823349 -442.275696 1143.818359
73.531242 -441.215118 1143.187378
72.981949 -442.627594 1143.117188
71.181541 -442.478210 1143.420044
74.784500 -442.376373 1143.027466
71.796082 -444.659698 1143.076904
69.852287 -443.867828 1143.425415
64.628204 -440.159149 1145.576050
66.500458 -439.589142 1144.969604
66.330521 -441.144653 1144.715332
63.523365 -441.964630 1145.661987
65.052040 -442.024200 1145.062988
67.840286 -440.739777 1144.291016
65.324142 -443.764984 1144.584473
67.136940 -442.866699 1144.156250
66.746590 -444.790131 1143.964111
65.077026 -444.943665 1144.449951
68.620857 -444.561646 1143.561646
65.390030 -446.972137 1143.963745
62.035973 -441.907257 1146.251221
60.398891 -443.223999 1146.671265
59.389324 -445.196167 1146.711304
60.685127 -445.421417 1146.059082
57.421890 -445.800690 1147.353516
63.749107 -444.202942 1145.097046
61.958374 -444.331268 1145.751221
63.695858 -445.843781 1144.728027
56.524052 -445.164520 1147.813110
23.925772 -446.041077 1143.643311
24.779215 -446.633453 1143.759277
24.395111 -447.523438 1143.783325
21.474855 -443.526825 1143.600952
22.443520 -444.226532 1143.677612
21.486097 -445.250702 1143.434448
22.714853 -446.309387 1143.539185
19.306845 -443.317535 1143.205322
20.071421 -444.857574 1143.153442
21.399784 -446.586975 1143.260498
23.400080 -447.543243 1143.698486
22.364073 -447.559448 1143.384277
18.409321 -444.089142 1142.523438
20.078199 -446.591003 1142.788452
18.925140 -445.793457 1142.370605
21.839224 -448.546143 1143.169800
17.807720 -445.570160 1141.710205
20.709639 -447.603394 1142.861450
18.424097 -447.195160 1141.628784
19.606554 -447.632843 1142.272217
18.692822 -448.532959 1141.310303
14.228422 -443.646851 1139.541016
15.107528 -444.233002 1140.149780
16.381350 -445.316620 1140.760132
17.572233 -446.637573 1141.178345
10.394165 -444.225983 1139.968628
8.131305 -444.447723 1140.344604
12.810038 -443.272461 1139.359131
12.106570 -444.115753 1139.194946
10.059034 -445.636383 1139.475342
8.682486 -445.633423 1139.824585
4.063679 -442.743591 1141.866821
2.955608 -445.196960 1141.190063
4.083835 -444.024261 1141.284180
5.921799 -445.214600 1140.369141
3.442863 -446.375580 1140.603516
6.274843 -444.108948 1140.755493
7.234517 -445.245178 1140.199707
5.314200 -446.403839 1140.051392
4.415371 -447.274139 1139.989136
2.921767 -447.938538 1140.317139
7.306801 -446.593536 1139.657227
6.060186 -447.454102 1139.551392
4.356373 -448.471100 1139.641479
0.535990 -445.048248 1142.284912
1.747695 -445.284363 1141.679932
-0.667215 -446.522034 1142.319336
0.775061 -446.762299 1141.604614
1.994137 -446.294800 1141.212158
1.791409 -448.003113 1140.787109
0.486911 -447.977661 1141.393066
149.662079 -440.008179 1164.451172
149.006348 -439.494629 1163.480103
150.492233 -441.274872 1164.186035
151.176315 -442.245148 1164.565308
149.611511 -440.487793 1162.812378
151.016464 -442.529205 1162.734619
151.934845 -443.603638 1164.218628
148.311768 -439.212250 1161.894897
150.144913 -441.400543 1161.952759
149.002441 -440.328674 1160.997925
151.196106 -443.227844 1161.139893
149.342484 -441.102722 1159.922363
150.329391 -441.987396 1160.958984
64.190430 -447.320435 1144.381958
58.974915 -446.774139 1146.544800
60.099590 -446.422455 1146.118652
61.852924 -446.761475 1145.308716
60.157005 -448.194366 1145.790771
57.486069 -450.003143 1146.371094
62.758038 -447.876007 1144.780640
61.728378 -450.838623 1144.541870
60.467201 -449.753113 1145.397949
63.837994 -448.970795 1144.155884
62.699581 -449.136627 1144.511108
58.947742 -451.065033 1145.635864
60.499176 -451.616333 1144.876465
54.755970 -445.760529 1148.264160
53.879223 -446.709930 1148.344360
55.914963 -448.446167 1147.384766
54.808025 -448.094910 1147.895874
53.472237 -447.840851 1148.238525
53.493484 -449.401611 1147.976318
58.108082 -447.702393 1146.728638
54.019184 -450.502441 1147.661987
52.197792 -450.310425 1148.134521
57.519146 -448.703064 1146.776367
56.489738 -449.431366 1146.894409
54.901848 -451.862976 1146.986694
55.721092 -450.698700 1146.929688
57.520515 -451.683289 1145.982300
52.373905 -448.977142 1148.270752
51.104717 -448.266754 1148.426880
51.344154 -449.709534 1148.302246
49.747231 -451.130951 1148.279419
51.443222 -451.657684 1148.121582
52.663284 -452.574646 1147.560303
42.216534 -447.722046 1146.206543
42.322968 -449.040497 1146.505371
25.567453 -450.598938 1144.158936
26.655531 -450.627411 1144.441528
24.074652 -449.384186 1143.695435
25.683615 -451.975525 1144.083618
24.146759 -450.931732 1143.748413
24.312689 -452.075653 1143.621582
23.120262 -448.643250 1143.607300
22.611654 -449.753845 1143.281860
23.824024 -453.077423 1143.364868
20.762754 -448.753448 1142.609863
20.948364 -449.952057 1142.474243
22.939116 -451.631653 1143.204834
21.514202 -451.392059 1142.469971
22.640392 -453.999939 1142.339111
19.624893 -448.970398 1141.861938
21.818069 -452.770142 1142.196533
6.183797 -448.965332 1139.090698
4.975591 -450.330841 1139.005981
3.133799 -449.774414 1139.786621
4.022415 -450.909393 1139.234985
-0.750883 -447.936676 1142.010498
0.065243 -449.319763 1141.352173
-1.936901 -449.169617 1142.385254
1.022924 -449.430817 1140.807495
-1.553832 -450.231812 1141.961548
-0.332188 -450.326996 1141.462646
1.908049 -449.685883 1140.369629
-0.450388 -451.366699 1141.202148
-1.488497 -451.313934 1141.752197
1.057021 -450.466003 1140.676636
1.044378 -451.870789 1140.413696
-0.401379 -452.912567 1141.044800
2.760858 -450.898499 1139.780273
2.276977 -451.852570 1139.835083
1.919361 -453.052246 1139.870361
-3.185377 -448.170746 1143.252686
-4.371113 -449.284241 1143.463745
-5.467820 -449.952179 1143.732666
-3.429947 -449.500214 1143.066895
-7.229484 -450.415405 1144.123657
-4.467298 -450.872375 1143.171387
-3.524034 -450.726257 1142.793701
-5.886868 -451.304871 1143.559082
-4.996432 -451.650970 1143.212402
-2.528252 -450.664734 1142.393311
-3.768069 -451.933472 1142.688965
-4.539731 -452.744385 1142.847290
-5.726356 -453.245270 1143.139038
-2.719525 -451.991425 1142.216675
-3.519904 -453.391785 1142.342285
-1.499716 -452.846069 1141.517456
-2.502954 -453.506531 1141.869019
-6.640908 -449.582977 1144.165894
-8.044421 -452.047638 1143.917358
-9.357266 -452.891693 1143.971069
-6.875161 -451.775665 1143.766846
153.556244 -446.424011 1166.169189
154.820435 -449.066620 1166.885254
154.148499 -447.680511 1166.223877
153.507614 -446.459076 1164.671753
154.174118 -447.790894 1165.106445
154.810715 -449.166595 1165.394775
153.224945 -446.233215 1162.812012
154.189957 -447.960205 1163.386108
154.755630 -449.125427 1163.731812
155.225067 -450.110657 1164.386108
152.871567 -445.080139 1165.884888
152.675308 -444.902130 1164.663086
152.797363 -445.219513 1163.581909
152.293457 -444.528656 1162.661743
152.570282 -445.492462 1161.041260
153.806839 -447.388702 1162.327759
56.454998 -452.436859 1146.200317
53.665237 -453.141205 1147.056274
54.799877 -453.812256 1146.414185
59.103333 -452.929688 1145.042358
57.348694 -453.869690 1145.365845
55.740269 -455.221313 1145.454102
54.427288 -455.305481 1145.994873
47.631615 -452.730286 1148.223389
49.774811 -452.679749 1148.191895
48.904408 -453.900116 1148.150635
47.426815 -454.468018 1148.249390
51.364380 -453.987793 1147.590942
50.411072 -454.688660 1147.682129
49.556408 -455.457886 1147.708862
48.409622 -455.941284 1147.937500
47.570892 -457.162109 1147.906372
51.932896 -455.086884 1147.002441
49.436554 -456.901703 1147.298706
51.225021 -456.224701 1146.846069
52.906212 -456.091034 1146.254272
50.332092 -458.220428 1146.359375
52.274883 -457.086853 1146.056396
46.276730 -455.374115 1148.332764
45.782848 -456.872345 1148.318115
44.456051 -456.634491 1148.420410
30.706856 -457.833893 1145.888672
29.241455 -456.098663 1145.231079
28.056492 -454.338745 1144.901733
26.834717 -453.152985 1144.487427
25.817753 -453.175751 1144.203125
26.664330 -454.404205 1144.447876
27.571815 -455.980560 1144.653442
29.261042 -457.528381 1145.404907
25.360891 -454.171570 1143.962769
26.536928 -455.927429 1144.378540
27.682058 -457.260681 1144.766113
24.968445 -453.152679 1143.886475
25.390341 -455.381073 1143.923340
26.688480 -457.462128 1144.256714
24.311157 -454.268036 1143.459229
25.550678 -456.410919 1143.885010
26.422796 -458.303925 1144.063110
24.481462 -455.781250 1143.243042
23.632725 -454.687653 1142.942261
-0.608789 -454.115112 1140.962158
-4.906522 -454.060120 1142.764160
-3.862290 -454.356598 1142.399170
-4.946142 -455.766327 1142.584473
-1.797237 -454.216492 1141.466919
-2.581511 -454.980682 1141.791748
-3.939207 -455.389435 1142.283569
-1.667797 -455.487854 1141.416382
-2.970884 -456.413300 1141.851562
-3.918497 -456.789429 1142.163696
-9.730429 -454.613892 1143.755737
-6.999792 -452.936676 1143.550171
-7.807332 -454.586334 1143.432495
-6.509234 -453.876678 1143.279175
-8.619025 -456.126801 1143.359619
-10.487596 -456.599762 1143.598755
-6.336776 -454.947144 1143.025513
-7.408601 -456.472687 1143.022583
-9.188323 -456.907623 1143.382812
-6.323837 -455.955170 1142.858765
-8.442011 -457.593964 1143.124634
-9.901429 -457.855438 1143.414062
-5.897035 -457.922913 1142.642090
-7.054558 -457.976929 1142.884521
-4.656245 -457.544098 1142.338135
-12.276974 -453.210175 1144.345337
-14.541633 -456.310913 1144.281128
-11.920836 -454.753876 1144.019897
-12.802693 -455.891968 1144.010010
-13.248243 -457.398407 1143.932129
-15.375277 -457.332428 1144.425903
-11.668748 -456.983215 1143.680542
-10.459690 -455.402191 1143.752686
-12.835491 -458.600922 1143.784668
-11.493631 -458.707306 1143.567017
-16.325502 -456.950043 1144.665161
156.285370 -452.606537 1167.883545
157.000595 -454.465698 1168.932129
155.331879 -450.336700 1166.663208
156.879700 -454.172546 1167.842407
155.853943 -451.577362 1166.202393
156.566956 -453.398621 1166.579102
157.187866 -455.151947 1166.378540
155.784485 -451.552673 1164.825562
156.401077 -453.065857 1165.412598
156.906433 -454.473236 1164.534180
156.155411 -452.453522 1163.777466
48.373436 -458.584198 1147.098633
49.636944 -459.591309 1146.015869
43.340786 -457.821350 1148.340332
41.930107 -457.511261 1148.117798
44.888844 -458.044434 1148.318359
44.138206 -458.598053 1148.357300
42.862370 -459.570374 1148.286743
46.381214 -459.192810 1147.581787
44.753185 -459.690918 1147.991455
43.668919 -460.381866 1148.097168
41.846123 -460.471161 1148.240967
47.732086 -457.829773 1147.717163
47.499638 -459.184723 1147.253906
45.110619 -460.985535 1147.486816
43.523022 -461.891144 1147.671021
46.610237 -460.603790 1146.969482
45.315441 -461.871033 1146.988281
44.349960 -462.528961 1147.170288
47.789970 -460.404388 1146.511597
46.295418 -462.360687 1146.300049
42.942120 -463.179443 1147.329102
39.768448 -459.852112 1148.246826
38.560249 -460.504944 1148.170776
37.040962 -460.982269 1148.000854
39.691753 -461.552460 1148.166870
38.353657 -462.137482 1148.022949
36.642902 -461.857361 1147.916138
41.186054 -461.767822 1148.140869
37.519211 -462.999054 1147.853760
39.562382 -463.170258 1147.809570
41.185043 -463.336060 1147.553467
33.085819 -458.006317 1146.841553
32.839787 -459.000458 1146.747192
33.993160 -459.888306 1147.122192
35.207802 -460.193085 1147.774170
36.125721 -460.929535 1147.925293
32.341553 -460.509308 1146.599976
33.663059 -461.272614 1147.029175
35.355164 -461.667175 1147.631348
30.388481 -458.709656 1145.838013
34.601963 -462.457855 1147.222778
30.645273 -460.406494 1145.906250
32.101723 -461.485291 1146.475952
36.103405 -462.975922 1147.564819
33.531052 -462.637970 1146.763062
30.819443 -461.678009 1145.837524
32.559490 -462.797394 1146.363647
31.134218 -462.741852 1145.683472
28.436010 -458.356842 1145.118286
29.286287 -459.926361 1145.232544
27.441729 -458.395050 1144.622437
28.226128 -459.374176 1144.959839
29.473799 -461.028992 1145.151245
27.016169 -459.736938 1144.110840
28.401209 -460.689697 1144.743286
29.703840 -462.592163 1144.886963
-8.406279 -458.598114 1143.092529
-9.572191 -459.247131 1143.283325
-7.395141 -459.561890 1142.895508
-8.537230 -460.267944 1143.073242
-14.096721 -458.457214 1144.079468
-14.969854 -459.539551 1144.190308
-13.426363 -460.254333 1143.813110
-14.544534 -460.450592 1144.090820
-10.711992 -459.406311 1143.463257
-11.806896 -459.776703 1143.591553
-12.531865 -460.707855 1143.698730
-14.592247 -461.579956 1144.093262
-13.427023 -462.298340 1143.784180
-11.195840 -460.825500 1143.479980
-11.441071 -462.087402 1143.508911
-9.679797 -460.574188 1143.254028
-10.308861 -461.501007 1143.364136
-11.181177 -463.424805 1143.509155
-16.317669 -458.294830 1144.577271
-16.245743 -459.488373 1144.505737
-17.336622 -460.168182 1144.828491
-18.452511 -461.322693 1145.061646
-17.714830 -462.575317 1144.934570
-15.287215 -458.461487 1144.377319
-15.882734 -460.678101 1144.401245
-16.734890 -461.506012 1144.644043
-15.442294 -462.146912 1144.286255
-16.024010 -463.024506 1144.496826
-14.249716 -463.584900 1144.012573
158.659515 -460.145081 1170.379883
157.560699 -456.000977 1168.679688
158.038376 -457.520905 1169.096680
158.615417 -460.672882 1168.792847
158.371140 -459.034149 1168.809204
157.623154 -456.351929 1167.482788
158.016281 -457.682709 1167.985596
158.294464 -459.219421 1167.572876
157.630417 -456.611694 1166.265747
157.986954 -457.973877 1166.619751
158.382675 -460.615723 1166.356567
157.390518 -456.084198 1164.834839
157.757523 -457.504578 1165.217163
158.077393 -459.015686 1165.612183
38.642586 -464.299286 1147.392212
36.832638 -464.725189 1146.916260
42.206432 -464.595001 1146.655029
40.304062 -464.458221 1147.142456
37.972660 -465.013458 1146.917969
43.487476 -464.222870 1146.489258
39.829796 -465.669189 1146.360474
34.788525 -463.546783 1146.950195
35.646557 -464.272034 1146.859619
33.729679 -463.716064 1146.491699
34.768223 -464.815857 1146.354004
32.667519 -464.538239 1145.683472
-12.404889 -464.006866 1143.720581
-13.533375 -465.275940 1143.972534
-19.625353 -463.814972 1145.507080
-18.616327 -465.246674 1145.216309
-17.405478 -463.935272 1144.887451
-15.810519 -464.365509 1144.446289
-17.236202 -465.354523 1144.865234
-19.174276 -466.637726 1145.465698
-15.726822 -465.684357 1144.460205
-17.924612 -466.306061 1145.111206
-16.022329 -467.468445 1144.670654
-18.241814 -467.476257 1145.285156
-14.649752 -464.997406 1144.184814
-17.160835 -468.364166 1145.054199
-19.868624 -465.591644 1145.659668
-21.976683 -468.004089 1146.563721
-21.007624 -466.318878 1146.155029
-20.099871 -467.282867 1145.873779
-21.035637 -467.922058 1146.250854
159.154205 -463.540283 1170.810181
159.272858 -465.095245 1170.499146
159.453354 -465.582367 1172.055298
158.924133 -461.669891 1170.546387
158.746597 -462.128021 1168.233521
159.000458 -463.476959 1169.199097
159.406097 -466.902832 1169.372559
158.915817 -463.814117 1167.954834
159.060715 -465.144836 1167.856689
158.731796 -462.776550 1167.273682
159.253311 -466.624847 1167.675537
-19.092237 -468.691956 1145.643799
-17.135008 -469.689606 1145.094971
-16.280802 -468.969940 1144.856812
-16.647707 -471.081818 1145.001343
-18.703896 -470.312286 1145.634399
-17.170485 -472.043640 1145.206543
-23.082212 -468.327667 1146.951660
-24.097605 -469.592194 1147.338135
-22.441864 -469.721893 1146.744507
-21.718342 -469.131561 1146.500122
-22.518911 -470.823853 1146.845581
-23.674923 -470.955353 1147.250488
-23.250198 -472.348938 1147.158325
-20.174301 -468.497589 1145.980713
-20.779106 -469.294006 1146.193359
-21.323547 -470.332031 1146.422852
-21.474712 -472.071136 1146.561523
-21.936825 -473.429382 1146.768433
-20.040855 -470.015839 1146.005981
-20.682932 -471.236572 1146.268677
-19.371407 -471.042053 1145.874146
-19.624496 -472.573822 1145.984009
-18.632406 -472.380066 1145.696411
-24.578411 -471.741272 1147.634033
159.797394 -468.404724 1172.475220
159.584747 -467.242676 1171.348999
159.821228 -469.202850 1171.781494
159.667236 -468.498291 1170.683716
160.073395 -471.662140 1171.970703
159.898636 -470.557098 1170.965088
159.904053 -471.333435 1170.175659
159.419937 -466.433350 1170.336304
159.649734 -469.325775 1169.314697
159.426834 -467.685211 1168.324219
159.762482 -471.044586 1168.595581
159.379456 -468.230774 1166.976196
159.540543 -469.483643 1167.652344
-24.142344 -473.699432 1147.525024
-23.100021 -475.462250 1147.173828
-21.096792 -474.709045 1146.522339
-21.708294 -476.260132 1146.717773
-23.726515 -476.474670 1147.384766
-22.557367 -477.228027 1146.993896
-19.964792 -473.548157 1146.138184
-21.624613 -477.348206 1146.686157
-19.617432 -475.780945 1146.091675
-20.518787 -476.955414 1146.339478
-20.861488 -478.209351 1146.419312
-18.515854 -473.854401 1145.720093
-18.432411 -475.499939 1145.750732
-18.909266 -477.167450 1145.857178
-19.797915 -478.196655 1146.086304
-25.359137 -473.672363 1147.956055
-25.058784 -475.584290 1147.863037
-25.940565 -476.219971 1148.196167
-24.907087 -477.316162 1147.812378
-24.033035 -475.187378 1147.493286
-23.567665 -477.775970 1147.349976
160.573410 -476.616241 1173.924316
160.213867 -472.785858 1172.568359
160.322144 -474.372833 1172.697632
160.403702 -476.163696 1172.605469
160.541168 -477.348358 1173.158203
160.076904 -473.184204 1170.766846
160.183609 -474.715820 1170.869873
160.283081 -476.480408 1170.965576
159.957092 -472.797577 1169.402832
160.125519 -475.102203 1169.693359
-21.827938 -478.623260 1146.749023
-22.975218 -479.020172 1147.164795
-22.058325 -479.959869 1146.847656
-23.485020 -480.354797 1147.344360
-22.307394 -481.008850 1146.932007
-22.011354 -482.106354 1146.815430
-21.091961 -479.749542 1146.497681
-21.407370 -481.260132 1146.645142
-20.031324 -479.548126 1146.148926
-19.408249 -480.715546 1145.968384
-20.826893 -482.867371 1146.420532
-26.243912 -479.230347 1148.284058
-24.999435 -478.414490 1147.842407
-24.634043 -480.082458 1147.763062
-25.507870 -480.656494 1148.097534
-25.511755 -481.873474 1148.111816
-23.884914 -479.011993 1147.469116
-23.979181 -482.033844 1147.536987
160.773987 -478.483673 1174.258301
161.064407 -481.361755 1174.793213
160.860306 -480.116211 1173.899658
160.681412 -478.991821 1173.197876
160.950394 -481.760315 1173.553223
161.074905 -483.067566 1173.913086
160.778854 -480.522461 1172.840332
160.474030 -477.950043 1172.021362
160.609253 -479.799469 1171.903687
160.890900 -483.166321 1172.471436
160.416855 -478.485291 1171.138916
160.689835 -481.337341 1171.576538
160.482483 -480.110352 1170.689331
160.755981 -482.855316 1171.388916
160.318542 -478.896057 1170.020386
-22.101465 -487.139618 1146.699219
-21.634565 -483.550812 1146.642944
-23.121868 -483.977814 1147.183350
-22.031326 -484.724823 1146.737793
-21.326736 -485.843597 1146.410400
-22.448961 -485.888184 1146.847534
-20.530060 -484.261993 1146.247925
-20.498175 -485.471313 1146.146118
-20.798269 -486.792999 1146.173462
-21.502682 -488.264008 1146.352783
-26.305168 -483.042358 1148.443726
-26.292585 -485.425018 1148.460571
-25.698977 -486.884369 1148.213379
-24.729132 -483.247437 1147.786011
-26.234129 -484.226685 1148.420288
-25.151798 -484.986816 1147.956909
-25.126097 -486.178528 1147.952271
-24.429222 -484.444519 1147.655884
-24.376944 -485.663086 1147.609375
-24.046148 -487.489655 1147.413208
-23.245029 -485.044312 1147.174438
-23.290213 -486.836945 1147.128418
161.047623 -488.250122 1175.464600
161.220993 -483.537567 1174.994751
161.185623 -484.721924 1174.484497
161.110474 -486.761047 1174.668213
161.046570 -485.939056 1173.668823
160.704315 -489.337494 1174.506714
160.927841 -485.148682 1172.580933
160.701675 -487.391907 1172.298584
160.717026 -488.308350 1173.385498
160.835541 -484.269592 1171.660400
160.410614 -489.725525 1173.249878
160.094070 -489.884766 1171.329224
160.724472 -486.005493 1171.288574
160.380066 -487.567657 1170.150269
-23.745224 -489.744476 1147.227295
-22.326771 -491.764526 1146.630859
-23.892195 -491.046783 1147.261475
-23.220194 -492.561829 1147.056641
-21.595167 -489.558838 1146.332764
-21.231979 -490.845367 1146.223267
-20.500025 -492.167206 1146.053955
-21.846792 -493.107056 1146.607300
-20.079212 -489.547058 1145.829102
-19.818495 -490.988953 1145.803955
-25.607897 -490.721161 1148.196411
-25.031855 -488.581024 1147.881348
-25.793386 -489.656738 1148.281372
-25.115343 -491.772736 1147.943237
-24.677607 -489.709442 1147.634521
-24.154909 -492.126404 1147.459229
-23.208422 -488.120941 1147.033691
160.681946 -490.012177 1175.363403
160.293610 -491.316193 1175.230103
159.639679 -493.367004 1175.516479
160.204468 -491.022430 1174.197144
159.539352 -493.022186 1174.174072
158.800079 -495.143555 1174.745605
159.338715 -492.956573 1172.711670
158.454712 -495.155426 1172.632080
159.610077 -491.651550 1171.571045
159.070786 -493.192993 1171.490601
-16.605656 -498.221893 1145.365112
-23.350096 -496.208588 1147.371582
-23.570267 -494.439026 1147.388672
-23.758451 -495.313934 1147.498901
-21.665705 -496.539062 1146.794312
-24.072611 -493.288239 1147.545898
-22.040483 -494.029755 1146.751465
-22.316694 -495.361267 1146.979248
-20.761135 -497.518280 1146.593750
-21.151403 -495.144348 1146.539062
-20.604565 -496.497040 1146.466064
-20.848791 -493.732452 1146.349976
-19.878761 -494.254120 1146.040649
-19.250999 -495.830109 1145.929077
-18.888443 -497.129974 1145.882812
-19.045172 -492.338684 1145.557617
-17.891195 -495.059021 1145.381226
-17.823074 -496.446411 1145.507446
-25.234905 -492.987213 1148.093628
-25.116177 -494.019592 1148.114014
-24.645004 -494.968170 1147.956299
158.564606 -496.528290 1176.748901
157.047424 -499.135193 1175.147095
156.908524 -499.993530 1176.731689
159.008636 -495.100677 1175.800659
158.463104 -496.222717 1175.551270
157.988113 -497.303070 1175.625366
158.226425 -496.159760 1174.005737
157.704071 -497.511658 1174.463501
157.246613 -497.986908 1172.899536
156.802597 -499.046143 1173.190674
156.374481 -500.055939 1173.637207
158.053299 -496.263458 1172.982056
157.622574 -496.800293 1171.588867
40.959705 -496.894958 1148.137085
40.424030 -496.959473 1147.825073
41.646244 -497.621063 1147.964966
40.916454 -497.580994 1148.208252
40.265381 -497.580780 1148.166870
41.428654 -498.695007 1147.977783
40.460030 -498.809753 1148.018921
40.231087 -498.233002 1148.164917
39.627884 -497.601105 1147.929077
39.517723 -498.200226 1148.174927
39.460522 -498.922119 1148.009277
-18.611408 -500.554321 1146.311035
-17.028387 -501.216431 1145.944458
-18.117231 -501.894867 1146.375854
-16.704935 -500.004059 1145.643677
-15.623850 -501.940643 1145.783081
-18.406530 -498.426514 1145.841797
-15.330584 -500.654053 1145.444458
-21.527325 -500.972321 1147.433228
-22.800751 -497.430664 1147.340210
-22.225613 -498.562134 1147.299316
-22.091745 -499.712036 1147.421021
-20.956875 -498.647400 1146.784912
-20.546480 -500.065430 1146.872192
-20.257763 -501.108612 1146.955200
-19.566603 -500.539093 1146.593262
-19.142494 -501.689026 1146.682251
-19.355452 -498.228851 1146.146484
-19.750429 -499.398834 1146.457031
155.825226 -502.068329 1176.845581
156.157623 -501.063568 1175.609741
154.955872 -503.644257 1176.954468
153.845322 -505.553162 1177.064087
155.033951 -503.163727 1175.690308
155.661179 -502.050629 1175.745483
154.134827 -504.672913 1175.327393
155.968246 -501.098511 1174.399170
155.272507 -502.529907 1174.855225
154.744247 -503.360168 1174.306274
155.002213 -502.686310 1173.480469
154.185181 -504.214203 1173.668091
153.709381 -505.236633 1174.258179
155.854034 -500.960022 1173.109863
153.657181 -505.049042 1173.080811
152.899139 -506.632263 1173.947388
155.295731 -501.865997 1172.427002
154.165863 -504.021576 1172.589233
152.723694 -506.673767 1172.650024
-11.988854 -506.130341 1146.314453
-17.519148 -506.551025 1147.559570
-17.451054 -504.926147 1147.012451
-19.644241 -504.640656 1147.622192
-18.784079 -503.438538 1146.975098
-17.230083 -502.752045 1146.313599
-16.819389 -504.204498 1146.664429
-15.694640 -505.175354 1146.760742
-14.514703 -507.099091 1147.136108
-16.287766 -506.625427 1147.331543
-16.174925 -503.597260 1146.319702
-14.418439 -505.695404 1146.675293
-14.992915 -503.129395 1145.963135
-14.320383 -504.235138 1146.115967
-13.241907 -507.525970 1147.093872
-13.151190 -505.117493 1146.167480
-20.868673 -502.194122 1147.432739
-20.276203 -503.318390 1147.486084
-19.646631 -502.337463 1146.988892
153.153320 -506.763123 1177.180176
152.293991 -508.200714 1176.511963
153.320572 -506.252136 1176.174683
152.695068 -507.220062 1175.288940
152.081757 -508.366272 1174.902710
152.279099 -507.792419 1173.918579
150.866577 -511.136627 1176.469727
150.969635 -510.621124 1175.113892
150.239471 -512.231201 1175.738892
151.542023 -509.394836 1174.585205
151.112961 -510.120178 1173.830811
150.078705 -512.110107 1174.033081
151.405762 -509.353058 1172.946533
150.607590 -510.855896 1172.721191
-12.434654 -510.391815 1148.156860
-14.072392 -509.680237 1148.098267
-11.935079 -511.563263 1148.698120
-13.178779 -511.795258 1148.951904
-11.120205 -509.970459 1147.814209
-13.996558 -508.477844 1147.630615
-12.447927 -508.577942 1147.426025
-9.909149 -510.824615 1148.077026
-10.763172 -511.187653 1148.366333
-11.689328 -507.444885 1146.794800
-10.941586 -508.726746 1147.273804
-8.864670 -509.648956 1147.396973
-8.705095 -510.817352 1147.921997
-8.781578 -511.953888 1148.462524
-16.924509 -508.862976 1148.370239
-15.577060 -510.511139 1148.772705
-16.822596 -507.672241 1147.854858
-15.121142 -509.485168 1148.219727
-14.270341 -510.803162 1148.598511
-14.728442 -512.205322 1149.435303
-15.318894 -507.893738 1147.632690
150.362732 -512.379028 1177.148071
149.285416 -514.442261 1176.945557
148.658813 -515.723999 1177.149902
149.517578 -513.721375 1176.203613
148.631409 -515.301941 1175.923218
148.010101 -516.273743 1175.663696
147.265945 -517.570496 1176.005249
149.287766 -513.602783 1174.478638
148.452545 -514.930542 1174.159424
147.661087 -516.396667 1174.629883
146.321075 -518.284058 1174.620850
149.187378 -513.270874 1172.722778
147.517273 -516.210144 1173.643799
146.623596 -516.939331 1172.515869
147.937576 -514.874939 1171.880493
147.553131 -515.644958 1172.467407
145.968140 -517.809204 1172.629028
145.313263 -519.132202 1173.823608
-6.567301 -516.699585 1150.788452
-7.957519 -515.151855 1150.062866
-6.475477 -515.259521 1149.881714
-7.823999 -513.165894 1148.976929
-6.652724 -514.084595 1149.264038
-4.419298 -515.332397 1149.561523
-5.160904 -516.308777 1150.293457
-5.674201 -513.882446 1148.968994
-3.706714 -516.374573 1149.974609
-13.677415 -513.163086 1149.769653
-10.742527 -514.525208 1150.168823
-10.352361 -515.741028 1150.886719
-12.013728 -513.299622 1149.682373
-9.393156 -515.516113 1150.608765
-8.115427 -517.035706 1151.278809
-9.333611 -514.019592 1149.645264
-10.874156 -512.600952 1149.074097
-9.703743 -512.158813 1148.672363
-8.893886 -513.161560 1149.113892
-8.072677 -513.959778 1149.399170
-7.609855 -512.180847 1148.415283
146.217072 -519.509827 1177.155884
146.390015 -518.790344 1175.986694
144.425980 -521.958435 1177.349487
145.343735 -520.514526 1176.813232
144.536255 -520.991150 1175.754883
143.741714 -522.320984 1176.420166
145.122375 -519.957520 1175.053101
143.263947 -522.028870 1174.869507
141.915466 -523.942017 1175.553833
144.180099 -520.909790 1174.773315
142.103973 -522.431946 1173.369019
143.866440 -520.121643 1172.608643
142.971268 -521.444763 1173.218384
142.640808 -520.489685 1171.075317
141.889771 -521.519531 1171.517822
141.003021 -523.653931 1173.435181
139.397659 -524.560120 1172.503906
141.435318 -522.540100 1172.379517
140.702301 -522.629639 1171.405396
139.517929 -523.497253 1171.072388
40.574409 -523.461060 1150.800781
39.693928 -522.648499 1150.071533
39.474735 -524.122437 1151.108032
38.666210 -523.372375 1150.255249
38.382641 -524.178223 1150.884644
40.769257 -522.366455 1150.122070
38.738377 -522.092712 1149.568726
41.877640 -524.041504 1150.480225
38.055401 -523.403748 1150.126221
2.757386 -522.314453 1151.444214
-2.348760 -521.031250 1152.345825
-3.087878 -519.861877 1151.898193
-1.082552 -520.125671 1151.428955
-1.053637 -522.021423 1152.594116
-1.966666 -519.119568 1151.099243
0.468189 -520.382935 1151.087891
0.486765 -521.942993 1151.986694
-2.483465 -518.284119 1150.749634
-0.457687 -519.292358 1150.749512
1.586848 -520.834106 1150.972778
1.617514 -522.186523 1151.763916
-1.616739 -517.412415 1149.966553
-1.019231 -518.261169 1150.291870
0.616903 -519.076721 1150.271851
2.502761 -520.215149 1150.249878
-6.291540 -519.339233 1152.406006
-6.767789 -518.087830 1151.708984
-5.176613 -520.112061 1152.636963
-3.733902 -521.373047 1152.945801
-4.790257 -521.747070 1153.481812
-4.956768 -518.690857 1151.676758
-4.201303 -520.008362 1152.266235
-5.863465 -517.639709 1151.232422
-4.619934 -517.291504 1150.746338
-3.719436 -518.406982 1151.188843
-3.114995 -517.242554 1150.294922
-2.215566 -516.297729 1149.498779
142.074127 -524.544495 1176.895508
140.560654 -526.041443 1176.642944
140.577530 -525.364441 1175.540649
138.598022 -526.880371 1174.903687
137.687958 -528.266357 1175.752808
139.726883 -525.618958 1174.536255
140.503510 -524.577209 1174.149414
138.868546 -525.777161 1173.532471
137.193604 -527.299866 1173.602783
138.225250 -525.449646 1172.218018
137.927261 -526.361389 1173.112793
136.790619 -526.414001 1171.829590
138.345764 -524.328247 1170.842041
137.202332 -525.134399 1170.576050
136.276337 -528.572876 1174.336792
135.120544 -529.415466 1174.122559
135.701050 -528.207397 1173.040771
134.456741 -529.019531 1172.756470
133.602158 -530.064758 1173.282959
133.232391 -529.277161 1171.760986
132.497223 -530.642700 1172.850586
135.707825 -527.146790 1171.593628
134.566666 -527.904053 1171.370117
131.631897 -530.283203 1171.464966
133.330505 -528.135010 1170.374878
131.718384 -529.024292 1169.958374
135.906769 -526.016479 1170.300903
134.658737 -526.761414 1169.995850
130.140198 -530.557678 1170.426758
129.719040 -529.426025 1168.689209
128.827911 -531.154663 1170.018066
128.345657 -530.187744 1168.387329
55.680210 -530.478333 1153.194580
57.605366 -531.549805 1153.257080
56.828140 -532.441589 1153.922363
55.137817 -532.046814 1154.214355
53.422440 -530.726501 1154.117554
56.715065 -529.916016 1152.787109
53.888966 -529.401306 1153.278564
58.581627 -530.027344 1152.221802
59.131466 -531.173523 1152.572021
58.855949 -532.837830 1153.616211
49.721313 -530.952698 1155.417969
47.623634 -530.227173 1155.192993
48.839497 -528.916199 1154.172241
52.209373 -530.751587 1154.726807
51.043766 -530.741272 1154.949707
50.580395 -529.121033 1154.121216
52.169022 -528.791443 1153.548950
50.657768 -526.698547 1152.658936
48.299721 -527.304504 1153.057739
48.755779 -526.041077 1152.334229
53.455772 -527.750366 1152.654297
42.518143 -529.623901 1155.368652
43.337090 -528.373413 1154.192139
44.441402 -529.396729 1154.945068
46.786682 -529.303772 1154.622314
46.895256 -528.006287 1153.570923
45.012901 -527.961975 1153.613159
45.635540 -526.704590 1152.599243
43.428749 -527.347900 1153.143066
46.821774 -526.819458 1152.690308
44.275234 -526.663696 1152.526855
42.550777 -526.544800 1152.436523
45.860844 -525.767029 1151.862549
44.384354 -525.399414 1151.287231
42.651985 -525.876831 1151.740967
41.242123 -529.443420 1155.117920
41.405495 -528.607727 1154.625122
40.574902 -528.657471 1154.622070
40.585403 -529.416992 1154.884155
40.446678 -530.084839 1155.032593
39.969105 -529.027344 1154.266479
40.608482 -527.032349 1153.709351
39.860775 -527.226624 1153.485474
41.814999 -527.884338 1154.108398
40.573349 -528.054382 1154.295898
39.767982 -527.988586 1153.692993
42.054649 -528.720581 1154.757812
38.975513 -528.949280 1153.386963
40.281956 -525.710388 1152.698120
39.388260 -525.605408 1152.561279
39.906078 -526.547852 1153.119751
39.138367 -526.494080 1152.762329
41.231251 -527.074280 1153.570801
39.211227 -527.257874 1152.912109
39.123646 -527.993408 1153.111084
38.865993 -530.548523 1154.212769
40.408974 -525.007263 1152.038452
39.583042 -524.929260 1151.909302
38.819199 -524.949036 1151.732422
40.912952 -525.673706 1152.330566
40.761353 -525.994080 1152.821777
39.013100 -525.728882 1152.473999
38.778358 -525.734802 1152.185303
41.664104 -526.192566 1152.328979
40.884258 -526.494019 1153.135742
38.720779 -526.499634 1152.156372
42.284683 -527.282654 1153.364014
38.632797 -527.228027 1152.367676
38.275131 -528.114014 1152.453857
40.463928 -524.286987 1151.399902
39.094959 -524.272095 1151.206665
41.434807 -525.177063 1151.500610
38.267742 -524.975952 1151.191528
38.537731 -525.730774 1151.905884
37.404144 -528.976013 1152.436157
38.251804 -525.698425 1151.295776
38.161804 -527.201416 1151.809082
36.978195 -528.049561 1151.609009
37.867256 -524.155701 1150.457642
42.712788 -525.192749 1151.085205
38.049206 -524.968750 1150.691650
38.231728 -525.741516 1150.982544
38.188759 -526.480713 1151.345825
37.637348 -527.127319 1151.326416
36.338669 -530.174438 1152.673950
36.629986 -527.367371 1151.040283
35.997478 -528.821411 1151.627441
35.092438 -528.157043 1150.652588
6.761347 -526.432312 1152.647949
9.220702 -527.349243 1152.361328
8.116996 -527.284302 1152.823853
6.993808 -525.151428 1151.636353
9.519662 -526.105286 1151.152466
8.234177 -525.938049 1151.659790
10.662142 -527.563599 1151.780640
10.768742 -526.277405 1150.661011
11.610028 -527.018555 1150.715088
11.661137 -528.311279 1151.805664
2.429864 -526.044983 1154.027710
3.499089 -526.768127 1154.133301
2.510963 -525.026550 1153.318237
5.530812 -526.347595 1153.087280
4.633102 -527.146362 1153.995483
2.499592 -524.065613 1152.663818
4.196149 -525.615173 1153.105225
3.499678 -524.084595 1152.362671
0.744835 -523.201782 1152.719604
4.658363 -524.375732 1152.056030
5.784150 -525.060974 1152.092285
3.454724 -523.224243 1151.725220
4.606922 -523.197327 1151.260498
5.797517 -523.465454 1150.891968
4.169459 -522.030884 1150.619751
7.107230 -524.224243 1150.854614
-2.460193 -522.810669 1153.494263
-0.172330 -524.672180 1154.067017
1.026723 -524.906311 1153.786133
-0.495362 -523.239990 1153.134521
1.619145 -524.362305 1153.173584
134.722504 -530.209045 1174.825806
133.617401 -530.918030 1174.537109
132.404373 -531.472961 1173.888062
128.994827 -533.810608 1173.768433
129.560150 -532.918884 1173.042236
126.717552 -534.564636 1172.791992
131.133286 -531.978394 1173.262451
127.294022 -533.601807 1171.922974
131.220337 -531.138733 1172.232422
130.017151 -531.616516 1171.680542
128.511124 -532.949097 1172.047119
128.751022 -532.054382 1171.063110
126.912758 -532.917664 1170.647461
127.623917 -531.719360 1169.677124
126.959435 -531.208252 1168.491577
126.313370 -532.293579 1169.333984
125.817818 -535.509644 1173.384888
126.104790 -533.971558 1171.426636
124.556076 -535.594299 1172.409912
123.241966 -535.872437 1171.722290
122.917709 -534.893494 1170.091064
121.975952 -535.953430 1170.827271
125.493202 -533.341248 1170.042114
124.466629 -534.212463 1170.296997
124.451096 -533.036926 1168.812012
120.828941 -535.699890 1169.640259
122.634743 -533.955627 1168.626465
125.552147 -531.352234 1167.586304
124.378616 -531.975281 1167.440796
123.067673 -532.569885 1167.269653
121.712502 -532.826904 1166.615601
119.431633 -536.317444 1169.496094
120.117287 -534.979492 1168.251099
117.529671 -536.442261 1168.427979
120.318901 -534.012573 1167.147217
121.276093 -534.770020 1168.703735
118.844383 -535.335754 1167.810303
117.505035 -535.202637 1166.834351
116.057274 -536.985474 1168.215942
118.199951 -534.296875 1166.115967
116.044571 -536.030823 1166.915405
115.030640 -535.675903 1165.974243
114.690933 -537.281616 1167.813110
113.531380 -536.341187 1165.875732
112.003052 -536.419128 1165.326050
110.747330 -537.241455 1165.694702
109.321327 -536.655334 1164.330322
109.200104 -537.754700 1165.669556
107.965202 -536.837646 1163.928833
107.935951 -537.903442 1165.285156
106.871780 -537.419250 1164.222778
105.756737 -536.962646 1163.167114
104.013969 -537.354431 1162.995239
103.029594 -537.179810 1162.339966
100.594376 -537.845764 1162.348633
99.049858 -538.519409 1162.723389
98.465096 -537.282837 1160.949341
97.367607 -538.739319 1162.443359
96.940819 -537.494629 1160.791382
96.312683 -538.369812 1161.633545
94.616600 -538.199463 1160.878174
92.941216 -537.840332 1159.848145
91.540947 -537.753174 1159.339844
89.938103 -537.870850 1159.042603
86.127441 -537.895508 1157.729126
84.423737 -538.029297 1157.401611
83.672867 -539.010376 1158.237549
77.384674 -538.039856 1155.550049
83.085625 -538.193970 1157.093994
81.741013 -538.880554 1157.476685
80.042923 -538.280518 1156.344604
78.757278 -538.391357 1156.165283
77.411858 -539.012390 1156.619141
75.733269 -539.018250 1156.406006
73.639351 -538.605835 1155.646973
72.387466 -538.212036 1155.193726
72.585365 -539.561768 1156.559814
75.369507 -537.964905 1155.200073
73.838440 -537.079529 1154.230225
67.662476 -538.622559 1155.647461
65.728783 -537.423401 1154.960693
66.164917 -538.722534 1155.869385
66.503105 -536.746033 1154.364502
69.142097 -537.144592 1154.364380
67.826889 -537.193604 1154.516357
70.526840 -538.250122 1155.138916
70.675804 -539.453735 1156.314697
69.185760 -538.425232 1155.403931
68.166855 -536.258911 1153.708008
66.680603 -535.543396 1153.489868
72.182739 -537.289246 1154.415039
70.920708 -536.164429 1153.499146
59.013634 -537.611267 1156.325195
60.624645 -536.579895 1155.373169
61.618416 -538.827515 1156.694336
59.188316 -536.561401 1155.546753
62.867702 -537.413513 1155.527710
61.844856 -536.316040 1154.996948
64.447609 -538.536621 1155.971802
60.868065 -535.088745 1154.379639
59.523762 -533.953491 1154.037109
62.829365 -535.859741 1154.558716
64.103973 -536.616943 1154.718140
60.631824 -533.379333 1153.429565
62.675316 -534.620300 1153.841064
64.048782 -535.321472 1153.957275
65.282997 -536.155579 1154.158936
60.716343 -532.275513 1152.801514
63.535519 -533.921021 1153.257935
61.785645 -532.910339 1152.930908
65.049232 -534.250977 1153.049194
55.813572 -536.029541 1156.260498
57.824371 -537.221497 1156.378296
55.248856 -534.540894 1155.581787
53.474548 -533.487610 1155.607422
56.540363 -534.992249 1155.426025
57.936729 -535.038330 1154.951416
55.369160 -533.311462 1154.789551
53.932617 -532.488525 1154.812134
57.358387 -533.687561 1154.416138
52.936687 -534.925720 1156.733643
50.980244 -532.115906 1155.776978
50.930206 -533.313354 1156.517944
49.303680 -532.048584 1156.154175
51.962524 -533.066040 1155.907715
52.479729 -532.198792 1155.310913
44.479916 -530.498230 1155.868530
47.389900 -531.220886 1155.988037
46.175316 -530.517273 1155.577026
41.920357 -530.140869 1155.782349
39.922459 -530.533447 1154.878418
38.922424 -531.649658 1154.892822
36.849930 -532.496765 1154.405640
37.496078 -530.988037 1153.716187
37.983463 -531.615295 1154.410400
37.745552 -529.859863 1153.182739
35.286480 -531.836304 1153.025879
36.255112 -533.943237 1155.282349
35.004673 -533.757080 1154.511841
33.569263 -534.912354 1154.957031
32.469044 -534.103638 1153.849243
31.634773 -536.088318 1155.164307
34.408546 -532.913086 1153.596558
35.309124 -530.137146 1151.932373
33.316490 -532.123840 1152.424805
32.338341 -532.697449 1152.702637
33.589153 -530.160400 1150.995972
31.695395 -531.306091 1151.309326
30.528379 -534.654175 1153.590210
31.482395 -535.041931 1154.317017
31.258968 -533.315552 1152.751465
29.347549 -534.536011 1153.037476
31.289688 -532.258179 1151.953735
30.299000 -533.318298 1152.453003
28.156298 -534.432739 1152.563599
17.866566 -534.718018 1154.445801
17.971788 -533.866455 1153.351196
17.311857 -533.198547 1152.819580
17.418423 -532.237305 1151.779175
16.106970 -532.155457 1152.595093
18.713882 -532.959473 1151.899292
19.125214 -534.368591 1153.406128
12.657553 -532.412903 1155.169922
13.880658 -533.271851 1155.365234
14.186229 -532.541992 1154.372803
16.326710 -534.204346 1154.868896
11.033901 -529.948669 1153.628418
12.899172 -531.044189 1153.604492
12.273530 -531.323975 1154.304443
14.762283 -531.851990 1153.295898
15.824826 -533.163696 1153.879272
12.634102 -529.100525 1151.841797
11.580377 -529.220215 1152.699341
14.790406 -530.119263 1151.419434
13.327610 -530.387451 1152.619873
13.548750 -529.232117 1151.310181
16.803509 -530.693604 1150.824463
7.927687 -528.545105 1153.984497
9.868772 -530.256226 1154.544556
6.562711 -527.748535 1153.861572
9.135355 -528.557190 1153.475952
10.165274 -529.073303 1153.354126
10.494597 -528.416626 1152.661255
5.237790 -528.666870 1155.001343
123.266396 -536.878357 1173.227905
121.175270 -536.669556 1171.292725
121.262146 -537.673584 1172.844360
119.224541 -538.424500 1172.483765
117.212990 -538.893188 1171.742188
115.662292 -539.660950 1171.925537
115.773552 -538.930420 1170.860352
119.386642 -537.373596 1171.008179
117.339378 -538.097595 1170.640625
115.813904 -538.029541 1169.594971
118.317970 -537.098938 1169.840088
117.105820 -537.372681 1169.428711
111.628677 -540.082092 1170.310303
110.291290 -540.275208 1169.866699
109.509895 -541.133240 1170.775024
114.418022 -539.414734 1170.740723
113.003464 -539.859680 1170.658081
113.146599 -538.920410 1169.312744
111.786781 -539.043091 1168.814331
114.576187 -538.365295 1169.282837
110.433838 -539.234863 1168.376709
113.269356 -538.061829 1168.160522
111.920189 -538.211182 1167.697266
110.872658 -537.952148 1166.786255
112.724739 -537.303223 1166.820679
106.358406 -540.979187 1168.980591
104.833389 -541.408936 1169.067993
108.938957 -540.446716 1169.411865
107.523758 -540.929993 1169.468872
107.679146 -539.988770 1168.100586
104.865410 -540.696899 1167.953979
109.107368 -539.377075 1167.875977
105.661278 -539.978821 1167.177124
107.933311 -538.844482 1166.581421
106.487755 -539.065002 1166.204956
105.132423 -539.192566 1165.740967
109.222313 -538.584656 1166.809204
106.281204 -538.116272 1164.829468
102.918831 -541.173096 1167.914429
101.277534 -540.841431 1166.713989
102.856331 -540.541870 1166.898438
100.042877 -541.122375 1166.581177
